ply
            format ascii 1.0
            element vertex 59124
            property float x
            property float y
            property float z
            property uchar blue
            property uchar green
            property uchar red
            end_header
139.184132 309.838567 2.084684 94 101 104
101.732326 449.382946 1.671845 99 106 108
115.312187 399.683013 1.822231 219 223 224
188.368244 158.763267 2.631712 97 104 106
205.872346 121.874409 2.942869 97 104 108
-1003.209634 4037.904584 -14.485319 187 198 198
500.419841 -1281.385499 6.039363 49 53 48
175.918021 212.375933 2.393730 67 74 77
636.227143 -1794.030936 7.631327 9 6 3
275.095027 -48.590130 4.022610 148 158 158
-889.563113 3625.123623 -12.683577 173 183 183
-889.563113 3625.123623 -12.683577 173 183 183
156.663660 302.010229 2.135754 187 194 197
119.729775 436.163817 1.731425 96 103 107
234.386380 64.745400 3.195333 99 106 109
186.747364 203.214002 2.471738 161 168 170
162.380144 288.592523 2.146097 89 96 99
114.014725 471.933906 1.640522 141 148 151
142.111513 378.953814 1.918857 184 192 195
655.339356 -1809.041164 7.603824 191 189 185
-990.136992 3862.107521 -13.783815 173 181 181
-990.136992 3862.107521 -13.783815 173 181 181
213.682601 156.578559 2.725620 162 169 172
695.958166 -1916.446223 7.994549 37 35 30
161.515262 342.375281 2.075539 72 81 84
331.492606 -108.954312 4.502463 168 173 174
233.437445 132.607808 2.884920 197 201 201
222.403995 173.937494 2.721965 160 166 171
-970.497952 3688.898734 -13.063965 164 173 176
208.668565 210.437313 2.498568 151 158 161
150.210403 408.203940 1.837339 208 215 218
182.399107 304.391864 2.187914 80 87 90
208.397695 234.310390 2.451457 180 187 190
404.044208 -245.231794 5.362552 185 191 190
304.599318 0.964872 3.817987 153 161 161
232.541185 175.258464 2.690903 105 112 115
232.541185 175.258464 2.690903 105 112 115
316.750752 -20.914848 3.969930 101 107 107
168.482662 372.391391 1.940535 172 181 184
-993.913110 3656.482994 -12.993910 228 236 236
178.675808 366.338883 1.989126 155 164 167
758.955074 -1942.664126 8.053221 159 163 158
-1059.884947 3812.851382 -13.631697 177 185 188
-1059.884947 3812.851382 -13.631697 177 185 188
146.199779 473.601247 1.640234 221 228 231
486.809706 -840.403416 5.052475 149 149 147
185.092143 372.024507 1.995966 102 111 114
282.645389 106.777288 3.152814 174 181 184
161.434708 448.476844 1.735067 217 224 225
496.182256 -727.714992 5.347079 49 54 52
554.297996 -539.457673 6.870893 114 118 119
191.349796 365.154041 2.046770 101 110 113
193.943192 349.528544 2.051198 190 199 202
203.633763 320.448585 2.154396 177 186 189
400.502025 -140.957131 4.790098 96 104 104
400.502025 -140.957131 4.790098 96 104 104
281.464939 129.703476 3.056514 103 113 116
188.736005 391.527247 1.963870 193 202 205
188.736005 391.527247 1.963870 193 202 205
315.115124 67.001193 3.433594 191 196 196
208.405951 338.307131 2.154723 159 168 171
256.618801 202.051600 2.655586 132 139 142
487.094511 -716.880673 4.915409 179 177 176
234.837153 270.471681 2.383639 67 76 79
270.927269 179.044059 2.790477 174 183 186
199.348481 386.780562 1.995879 88 97 100
509.662553 -774.750418 5.050740 56 59 57
559.225507 -729.196731 5.988265 65 70 69
588.359190 -541.645543 6.916386 56 61 61
588.359190 -541.645543 6.916386 56 61 61
-985.266130 3418.451643 -12.003368 220 227 230
248.732116 249.569558 2.483880 183 192 195
-1221.290597 4003.878823 -14.709822 227 232 233
-1023.910632 3496.718590 -12.369994 156 167 169
-1023.910632 3496.718590 -12.369994 156 167 169
-1023.910632 3496.718590 -12.369994 156 167 169
170.938915 484.461003 1.682801 207 214 217
-1353.334055 4314.509430 -16.184479 238 242 243
260.174257 234.160117 2.557208 109 116 119
555.257587 -920.510031 5.338426 58 59 58
1012.929705 -2438.641023 10.045778 89 91 87
260.010175 247.858463 2.506389 112 124 126
-1333.706151 4184.541737 -15.616251 159 170 170
452.974812 -137.194296 4.865327 158 166 165
183.737343 478.059029 1.691339 187 196 199
-1234.116438 3920.792087 -14.379881 178 187 187
259.032142 269.721908 2.404174 194 201 201
259.032142 269.721908 2.404174 194 201 201
274.619428 238.893911 2.590316 163 176 176
215.448717 405.188393 1.972128 188 197 200
-1330.064388 4065.978455 -15.179053 224 234 234
-1379.037231 4175.864975 -15.678547 170 178 178
247.662785 336.617753 2.196135 175 184 187
239.914447 353.673137 2.119586 92 101 104
416.717449 -17.635045 4.155389 92 101 104
210.781645 450.965630 1.824967 225 230 229
316.044851 196.417862 2.912035 190 196 199
1131.392970 -2560.386171 10.540035 238 237 234
659.606585 -493.335981 6.849516 174 179 180
-1298.484624 3908.596032 -14.455013 233 238 239
765.661724 -696.203205 8.003857 69 77 77
238.696317 403.990633 2.047053 212 221 224
-1411.610471 4136.502149 -15.622156 238 244 243
516.259986 -174.907740 5.149968 118 125 128
222.458062 450.962123 1.874191 237 242 242
690.697918 -1037.873204 6.248488 197 189 186
276.898182 299.605561 2.347417 85 93 96
276.898182 299.605561 2.347417 85 93 96
366.536980 112.536448 3.320139 193 198 200
699.073826 -1029.488510 6.308627 73 72 71
-1510.570993 4307.993618 -16.433096 168 180 180
803.122699 -792.109320 8.073783 52 57 58
772.642739 -717.425902 7.741024 165 169 170
254.809088 381.386739 2.081911 93 101 104
227.858099 463.088001 1.820798 138 147 149
243.210443 419.444108 1.952986 216 225 228
1254.135631 -2358.678419 12.081983 230 232 230
213.943323 499.813881 1.678415 159 166 171
331.362580 218.567138 2.788014 197 204 207
294.474213 303.694873 2.426785 150 159 162
843.188292 -802.093175 8.328011 65 70 73
843.188292 -802.093175 8.328011 65 70 73
381.043363 130.748565 3.316163 198 207 210
507.467868 -95.565944 4.748402 111 121 124
507.467868 -95.565944 4.748402 111 121 124
436.135045 50.356751 3.851682 182 191 194
-1045.762230 3177.064354 -11.213190 234 241 241
265.815154 404.503380 2.077161 208 217 220
250.269848 450.529899 1.953026 205 214 217
250.269848 450.529899 1.953026 205 214 217
-1068.940674 3211.280562 -11.405732 172 183 183
-1068.940674 3211.280562 -11.405732 172 183 183
321.914159 271.143339 2.582376 72 81 85
-1301.930492 3705.469523 -13.750766 225 231 231
398.297443 123.352970 3.337574 185 194 197
839.334685 -697.496268 8.035465 71 78 81
365.955469 188.842920 3.001355 147 156 157
588.589062 -196.757398 5.387765 101 110 113
399.986252 141.942396 3.339916 117 126 129
-1410.952813 3886.987542 -14.646899 181 191 189
669.257728 -321.366619 6.142516 102 111 113
238.963969 499.375196 1.725771 202 211 215
282.354908 395.088043 2.094732 215 222 225
282.354908 395.088043 2.094732 215 222 225
244.896408 487.180428 1.749007 124 130 135
607.705268 -175.977911 5.385473 118 127 130
467.822987 55.451787 3.890426 161 170 173
1223.822964 -2030.722115 10.739352 194 206 208
348.458911 271.349534 2.649829 102 110 116
880.120390 -694.780943 8.025966 187 193 195
386.581291 204.665839 3.007030 92 102 106
1049.197815 -1014.953145 9.630312 82 87 88
292.984449 405.346803 2.097108 114 121 124
418.672292 160.593631 3.285890 108 117 120
306.326952 374.312181 2.207289 190 197 200
1023.118048 -923.992872 9.255515 175 182 184
-1346.700679 3620.788088 -13.423236 225 231 232
-1560.404742 3993.384216 -15.370121 238 245 246
261.335907 507.190744 1.746409 221 228 231
-1080.273949 3061.070189 -10.823288 166 177 179
726.230190 -350.040774 6.193770 137 146 146
1277.885815 -1340.001687 11.467549 81 86 87
270.418857 484.401435 1.826386 230 236 239
443.260028 152.965396 3.381273 83 92 95
1538.355131 -1803.518246 13.825583 184 191 192
1560.048735 -1849.824744 13.950959 119 124 127
1560.048735 -1849.824744 13.950959 119 124 127
-1665.718929 4146.718856 -16.125665 166 176 176
418.595784 208.644497 3.053070 98 105 108
1682.657400 -2046.803244 14.889124 113 119 122
1682.657400 -2046.803244 14.889124 113 119 122
355.247393 329.449890 2.465801 130 137 139
-1440.755936 3673.624078 -13.903317 173 183 186
889.384194 -567.580194 7.549366 200 209 212
-1153.862001 3160.431776 -11.263656 234 240 239
1774.491926 -2189.418066 15.586789 216 221 220
368.046571 314.996423 2.555698 139 146 149
661.289463 -158.216300 5.358548 89 98 102
-1742.652086 4225.886303 -16.522816 226 234 235
859.443159 -492.099734 7.149142 161 170 173
493.467261 121.674420 3.627425 94 103 106
324.529958 424.216768 2.094200 67 78 82
1029.963656 -752.114284 8.587243 195 202 205
430.534763 227.262022 3.015263 90 102 104
290.150730 494.125230 1.809483 121 128 133
290.150730 494.125230 1.809483 121 128 133
631.981649 -90.670544 4.907701 167 179 181
519.748952 93.281667 3.841361 209 218 221
339.357003 400.953904 2.173444 114 125 128
368.610532 349.654188 2.408269 113 122 126
1190.011251 -970.681083 9.891420 197 204 204
507.720755 125.107553 3.656009 195 204 207
300.246809 495.474036 1.840135 103 112 116
300.246809 495.474036 1.840135 103 112 116
291.033379 515.368834 1.763835 205 214 218
672.614519 -115.980672 5.174732 168 176 179
650.128785 -82.120438 4.959231 110 119 122
485.849789 156.496886 3.417737 126 135 138
882.813817 -446.599579 7.076528 188 197 200
1687.168970 -1827.949568 14.110988 116 121 122
1417.930275 -1335.267901 11.741049 106 110 111
417.152140 282.723793 2.776325 97 106 110
731.064184 -198.591852 5.625161 186 194 193
324.588221 451.487985 1.977598 209 218 221
339.741499 428.493863 2.108546 208 219 223
1598.718256 -1637.523679 13.225718 180 185 186
345.220892 421.001499 2.144009 98 107 111
304.058028 514.970626 1.798097 111 120 124
431.328843 273.338105 2.842962 185 194 198
841.846190 -339.618820 6.468353 206 213 213
798.416487 -267.023241 6.089627 102 107 111
1180.669494 -879.696163 9.398552 201 210 210
1756.788447 -1804.134432 14.377767 198 201 202
492.985251 185.415236 3.337278 207 216 217
492.985251 185.415236 3.337278 207 216 217
470.157245 220.683082 3.111174 198 206 209
356.545178 427.047543 2.147407 144 155 159
645.715153 -21.518048 4.661618 171 183 185
313.582517 505.041503 1.803394 115 125 128
313.582517 505.041503 1.803394 115 125 128
1759.264906 -1744.602956 14.184267 144 147 150
471.918095 238.093516 3.082255 90 99 101
367.160961 415.545507 2.200649 208 219 223
318.505459 514.234640 1.798737 196 205 209
809.850728 -242.958544 5.993948 89 96 99
1977.730733 -2105.772943 15.822266 164 170 171
1426.395175 -1200.078472 11.153882 120 125 126
1293.054589 -970.106644 10.015134 172 176 177
345.748781 456.139072 1.961242 220 227 229
452.758753 293.573595 2.842924 128 137 141
455.057168 289.023564 2.832490 136 145 148
455.057168 289.023564 2.832490 136 145 148
339.619624 489.437912 1.910195 214 223 226
339.619624 489.437912 1.910195 214 223 226
2017.741668 -2129.724885 15.882717 115 123 126
1703.726530 -1588.809942 13.262086 204 209 207
1985.121709 -2021.133888 15.554563 97 102 105
379.157836 434.989214 2.135866 207 216 220
379.157836 434.989214 2.135866 207 216 220
360.696136 474.991955 1.981124 180 189 193
1049.472589 -516.700918 7.656197 108 116 119
402.923650 403.883913 2.302661 120 126 129
771.084015 -120.948200 5.328964 115 122 125
494.307224 265.291753 3.011700 211 218 221
494.307224 265.291753 3.011700 211 218 221
543.309968 199.676059 3.423103 195 201 208
439.226305 348.062329 2.565658 214 222 224
608.076902 115.052348 3.943252 76 85 88
752.170596 -85.173921 5.141756 205 212 215
984.600308 -408.269436 7.054385 205 212 215
1513.179354 -1197.049736 11.328528 91 96 97
631.136102 91.028926 4.133993 166 175 178
2047.997677 -1977.634940 15.504911 210 215 214
1890.720247 -1720.945426 14.217367 177 180 183
440.121669 363.503224 2.521096 94 103 106
990.757414 -388.155219 6.999235 96 103 107
2196.881303 -2174.020131 16.584545 125 129 130
553.476395 209.667191 3.389360 146 153 156
369.076649 496.735857 1.948809 116 124 131
1720.991058 -1441.879858 12.675223 208 212 213
447.046405 372.354961 2.512988 186 195 198
595.223200 163.629511 3.686521 213 222 224
939.372229 -305.143715 6.444627 194 203 207
883.905770 -209.346765 5.987586 95 104 107
377.737798 491.500131 1.969937 181 190 194
1108.327521 -502.795640 7.718920 209 215 218
513.459711 286.490716 2.983478 212 219 222
1576.402535 -1138.543487 11.283925 94 99 100
1466.081361 -979.035917 10.368161 178 183 184
1711.263332 -1329.525065 12.239959 141 145 146
-2457.986942 -1349.482442 5.616569 34 38 43
-1567.478279 158.721280 2.267507 234 243 247
-2103.394372 -883.158383 4.412659 35 39 44
-2121.402508 -908.897245 4.480351 81 85 90
-2314.092369 -1161.206956 5.141463 83 87 92
-2432.449893 -1316.897091 5.552330 97 101 106
-1900.681584 -582.984208 3.697184 99 102 106
-1691.833192 -220.137488 2.901583 33 36 40
-1703.217692 -253.740819 2.957053 11 14 18
-1935.357893 -637.272344 3.825032 89 92 96
-1726.849289 -304.298767 3.058539 83 88 91
-1619.120546 -77.275298 2.613052 201 210 213
-1867.800206 -538.510976 3.587342 89 94 97
-1586.945038 4.717313 2.466707 122 131 135
-2100.948663 -873.621226 4.417205 93 97 102
-2240.217693 -1053.806010 4.892196 102 106 111
-2147.454662 -942.639896 4.583467 99 104 109
-2494.356123 -1420.073834 5.801484 41 45 50
-2605.567110 -1533.919772 6.154862 91 95 100
-1726.217132 -297.143584 3.061370 27 32 35
-1664.476237 -181.334943 2.817740 87 92 95
-1993.599648 -742.373077 4.066945 104 110 113
-2235.266841 -1068.164736 4.906220 14 19 22
-2423.912260 -1331.554386 5.572209 30 34 39
-1543.393112 172.269328 2.227445 219 228 232
-1589.824619 -21.778093 2.508772 210 217 220
-1854.210901 -517.830865 3.553704 7 10 14
-2278.410231 -1120.843541 5.063715 90 94 99
-2516.090568 -1451.253919 5.903626 93 97 102
-2588.965349 -1543.268667 6.152821 24 28 33
-1617.899836 -107.523872 2.661199 224 235 238
-1841.892299 -505.000517 3.527399 81 84 88
-1885.821307 -570.962428 3.686187 17 20 24
-1834.603468 -490.762924 3.500034 27 30 34
-1552.916443 99.675764 2.328291 217 226 230
-1530.832700 181.992854 2.207393 112 121 126
-1988.850775 -727.152264 4.075420 28 31 35
-2274.850911 -1143.840319 5.105541 16 20 25
-2304.988033 -1178.908569 5.210277 102 106 111
-2467.106178 -1387.942242 5.772568 48 52 57
-1538.194014 126.269771 2.288879 206 216 222
-2547.197850 -1517.152484 6.081944 30 34 39
-2547.197850 -1517.152484 6.081944 30 34 39
-2018.984195 -789.127891 4.218067 38 41 45
-2130.302748 -948.090972 4.616419 30 33 38
-2589.599001 -1563.417969 6.221641 82 86 91
-2414.562869 -1338.530636 5.618684 87 91 96
-2081.093493 -884.378405 4.451219 92 95 100
-1949.980233 -697.311753 3.984509 38 41 45
-1601.020828 -110.429551 2.658226 216 225 229
-2065.458963 -856.486726 4.394594 25 28 33
-2257.119436 -1112.310520 5.064779 101 105 110
-2069.076114 -845.067619 4.401005 78 81 86
-1591.930297 -77.670848 2.617035 164 175 179
-1751.262345 -380.961761 3.256696 26 31 34
-2377.125133 -1291.653846 5.517013 113 117 122
-2297.952056 -1184.534434 5.239934 83 87 92
-2371.758768 -1276.011172 5.496247 52 56 61
-2178.874447 -1026.325762 4.828686 40 43 48
-2178.874447 -1026.325762 4.828686 40 43 48
-2669.162629 -1676.239997 6.542202 91 95 100
-1579.368322 -56.403490 2.575097 126 137 141
-1579.368322 -56.403490 2.575097 126 137 141
-2637.186101 -1633.688435 6.435018 33 37 42
-1741.163535 -359.598197 3.225624 92 97 100
-2439.069902 -1374.294518 5.751416 88 92 97
-1542.624651 74.888721 2.378254 220 229 232
-1542.624651 74.888721 2.378254 220 229 232
-2314.705708 -1211.912078 5.319310 17 21 26
-2326.739594 -1238.365760 5.376990 105 109 114
-1993.515551 -766.546876 4.184597 43 46 50
-2495.525586 -1455.153598 5.967405 97 101 106
-1865.955388 -564.968619 3.715488 93 98 101
-1512.051337 125.592715 2.273147 147 156 160
-1509.896844 206.313784 2.199722 88 97 101
-1499.338779 221.968455 2.161764 135 144 148
-2372.886247 -1302.693760 5.571071 52 56 61
-2372.886247 -1302.693760 5.571071 52 56 61
-2552.736184 -1544.576588 6.208414 98 102 107
-2552.736184 -1544.576588 6.208414 98 102 107
-2596.849135 -1601.214535 6.366519 47 51 56
-2658.782780 -1682.730727 6.584977 40 44 49
-1509.903859 158.545905 2.259430 120 129 133
-1513.938241 126.631063 2.297543 228 237 240
-1585.745061 -86.204777 2.660042 215 224 227
-2458.982000 -1429.783950 5.911717 89 93 98
-1874.948300 -616.455160 3.820601 113 118 121
-2589.954285 -1624.722705 6.398621 89 93 98
-2589.954285 -1624.722705 6.398621 89 93 98
-1487.930516 236.893227 2.143121 121 130 134
-1974.006230 -753.642933 4.177573 40 43 47
-2079.026101 -924.203631 4.577896 94 97 102
-1641.748751 -218.503902 2.920742 97 100 104
-1503.682087 158.245923 2.256934 103 112 116
-1773.181268 -456.118715 3.448246 21 24 28
-1669.566445 -297.997150 3.070066 31 34 38
-1497.025813 233.795848 2.188990 218 227 230
-1775.606242 -471.734910 3.492038 30 33 37
-1602.733453 -188.907222 2.829901 70 73 77
-2309.466038 -1252.429773 5.467757 38 42 47
-1852.217831 -614.557183 3.814404 18 22 26
-2056.389411 -913.516474 4.568308 92 95 99
-2091.376320 -968.554660 4.712615 88 91 96
-2091.376320 -968.554660 4.712615 88 91 96
-1605.327471 -192.865873 2.860296 29 32 36
-2156.679453 -1056.320949 4.949367 33 36 41
-1865.228408 -644.420542 3.892145 104 107 111
-1676.186569 -319.884000 3.149264 79 84 87
-1502.020031 66.802856 2.386504 228 237 240
-1481.147227 124.558559 2.284570 142 151 155
-2655.012826 -1735.544684 6.761761 91 96 99
-2257.115542 -1203.801842 5.334745 43 46 51
-1709.058366 -392.076811 3.304305 83 89 92
-1523.009554 4.219278 2.502210 210 219 222
-2168.883842 -1086.462521 5.031777 29 32 37
-1476.679902 123.353401 2.291964 216 226 230
-1825.270148 -588.847012 3.775036 27 30 34
-1674.507689 -344.452989 3.194638 22 25 29
-1849.352770 -627.790835 3.870275 41 44 48
-2126.194687 -1034.924178 4.904842 39 42 46
-1564.431695 -123.678483 2.738500 120 131 133
-1564.431695 -123.678483 2.738500 120 131 133
-1541.186474 -100.391531 2.663410 196 205 208
-1507.065554 4.252642 2.492396 200 209 213
-1542.989678 -95.672742 2.671496 194 203 206
-2102.266579 -1012.141020 4.850729 95 98 103
-1460.076804 227.641185 2.178727 117 125 130
-1897.705794 -719.520761 4.102518 54 57 61
-1546.749884 -123.029061 2.718866 134 146 148
-2551.806973 -1629.280967 6.505820 41 46 50
-2588.921406 -1677.979263 6.639303 87 92 95
-1439.597205 251.461081 2.117703 109 118 122
-2229.957139 -1193.619934 5.340003 36 39 43
-2229.957139 -1193.619934 5.340003 36 39 43
-1487.888567 24.681878 2.448259 158 170 172
-1860.933988 -672.356734 3.989445 39 42 46
-1860.933988 -672.356734 3.989445 39 42 46
-2041.809577 -943.798594 4.678854 101 104 109
-1679.888447 -360.242832 3.277796 81 86 89
-1894.130869 -718.200856 4.123336 94 97 101
-1795.244066 -573.276756 3.752375 123 126 130
-2060.437163 -978.721091 4.764336 93 96 101
-2414.464833 -1464.436817 6.065038 84 87 91
-1602.746548 -244.777184 2.991644 83 86 90
-1999.275276 -886.718212 4.539825 26 28 34
-1435.269228 259.998409 2.124234 106 115 119
-2054.127136 -942.337208 4.726685 87 90 95
-2118.760247 -1061.373133 4.996718 109 112 117
-2383.054585 -1432.663232 5.978030 39 43 47
-2211.918786 -1194.882289 5.348527 114 119 122
-2152.797371 -1109.442034 5.135254 37 41 45
-1488.918283 14.749499 2.500364 138 149 152
-1488.918283 14.749499 2.500364 138 149 152
-1531.212643 -110.091409 2.718561 146 155 158
-1531.212643 -110.091409 2.718561 146 155 158
-1715.636951 -466.486644 3.497408 85 88 92
-2250.459533 -1249.084740 5.513824 17 22 25
-1500.485607 -15.164433 2.560495 109 120 125
-1500.485607 -15.164433 2.560495 109 120 125
-1479.826268 5.185709 2.495146 94 101 107
-1844.848992 -687.378740 4.028519 95 98 102
-1442.684920 123.673884 2.300126 124 133 136
-2032.794220 -969.085368 4.750789 31 34 39
-2594.363571 -1726.715267 6.814290 45 48 52
-1504.093179 -60.188135 2.625183 157 166 168
-1504.093179 -60.188135 2.625183 157 166 168
-1638.792754 -353.953839 3.229740 75 80 83
-1580.427846 -210.432806 2.954029 15 17 21
-1513.724727 -107.621014 2.696804 210 219 221
-1648.095457 -368.492402 3.272132 31 34 38
-2154.884364 -1138.443342 5.220445 27 32 35
-1449.669488 62.625914 2.387247 229 238 241
-2180.165969 -1174.677729 5.316628 118 123 126
-1431.311009 96.127493 2.320846 155 164 167
-1679.589177 -428.371571 3.415078 30 33 37
-1503.731749 -79.911760 2.661445 102 114 116
-1478.481691 -32.107937 2.558313 99 108 111
-1496.177361 -70.370986 2.637831 204 213 216
-1545.135209 -183.955087 2.866250 27 30 34
-1430.201233 139.679812 2.282059 219 228 231
-1822.625409 -673.319618 4.003716 90 93 97
-1432.046327 102.219895 2.327188 156 165 168
-1445.582516 68.298027 2.399686 203 212 215
-2338.025591 -1420.071373 5.980950 111 116 118
-1484.744131 -82.547019 2.643661 103 115 116
-1409.412045 196.767669 2.198174 93 102 110
-1638.793864 -374.663441 3.301309 19 22 26
-1731.762426 -535.921175 3.693340 88 91 95
-1446.110394 13.481718 2.481126 199 207 210
-1428.475739 122.793229 2.333483 225 232 235
-1747.736075 -565.239389 3.769046 77 80 84
-1507.569567 -134.772774 2.773360 129 138 141
-1400.870515 219.573253 2.180096 215 224 228
-1523.711020 -161.161190 2.842046 177 183 183
-1925.483850 -847.974855 4.479378 19 22 26
-1576.082735 -276.962920 3.080892 87 90 94
-1447.882428 21.872974 2.484061 129 137 140
-1857.949453 -739.658627 4.216396 87 92 95
-1461.259553 -32.491122 2.578248 133 140 143
-1447.459573 -3.116649 2.519054 116 125 128
-1400.305418 138.602904 2.269207 189 198 201
-1400.305418 138.602904 2.269207 189 198 201
-1417.830365 110.421027 2.340035 125 134 138
-1484.777790 -91.923886 2.698369 208 217 221
-1420.842782 54.737050 2.407478 222 229 232
-2464.838787 -1623.320994 6.578057 41 46 49
-1419.864104 90.195935 2.374986 129 138 141
-1380.433025 225.847707 2.149898 80 89 93
-1880.247482 -792.026391 4.351887 39 42 46
-1528.433725 -208.007280 2.931499 9 12 16
-1528.433725 -208.007280 2.931499 9 12 16
-2015.153988 -1008.856992 4.909437 37 40 45
-1477.219147 -104.655651 2.718979 176 185 188
-1448.610437 -39.298255 2.585488 209 218 221
-1397.794855 113.899142 2.314385 240 246 248
-1376.985887 180.404545 2.200062 213 222 225
-1486.992204 -133.128820 2.775029 187 199 201
-2037.806910 -1039.486218 5.005111 110 113 118
-1443.717076 -26.625835 2.568246 121 130 133
-1372.227842 136.330804 2.245677 208 217 220
-1411.109494 53.134228 2.420706 154 161 164
-1457.530342 -75.208689 2.660728 104 113 116
-1364.411345 224.213047 2.145396 125 134 138
-1377.041607 181.856571 2.218544 213 222 225
-1792.993273 -684.900385 4.086615 82 85 89
-1926.871553 -900.193923 4.636200 34 37 40
-1478.141895 -144.089593 2.801871 181 191 193
-1444.098515 -72.413647 2.649843 190 199 202
-1474.601597 -143.119367 2.792424 181 191 193
-2366.137487 -1534.990271 6.364433 100 104 109
-1885.177671 -844.595349 4.501647 39 42 46
-1519.486246 -185.175629 2.951834 33 38 39
-2311.830729 -1466.369403 6.170099 80 84 88
-1428.258133 -97.987529 2.640312 179 188 191
-1837.219502 -768.754119 4.313365 26 29 33
-1837.219502 -768.754119 4.313365 26 29 33
-2253.918557 -1375.033928 5.947497 45 49 54
-1357.281076 202.910395 2.182871 124 133 137
-1345.101983 275.129369 2.081781 203 212 215
-1990.421232 -1010.492546 4.940970 83 86 90
-1426.723362 -29.407582 2.582093 89 98 101
-1912.175516 -896.488955 4.649647 85 88 92
-1355.326480 218.853116 2.176013 194 203 206
-1595.350634 -402.802932 3.342214 234 236 237
-1358.824912 135.854143 2.267671 149 158 161
-2365.185981 -1560.533664 6.448754 34 37 41
-1343.819208 149.982699 2.221577 135 144 149
-1471.212869 -132.576900 2.815178 172 181 184
-1403.536103 -21.220149 2.539062 182 191 194
-1355.819187 186.145449 2.218459 205 214 217
-1393.084015 17.516417 2.480464 98 111 113
-1393.084015 17.516417 2.480464 98 111 113
-2090.183295 -1175.161641 5.395973 81 84 88
-1352.673933 144.716162 2.262123 205 214 218
-1360.883989 167.951434 2.262007 194 203 207
-1360.883989 167.951434 2.262007 194 203 207
-1385.487724 23.941225 2.466392 171 182 184
-1343.319233 240.252945 2.151924 148 157 160
-1359.891264 136.553767 2.295180 195 204 207
-1857.532235 -850.432505 4.515535 76 79 83
-1428.264740 -84.157421 2.686347 105 114 117
-1428.264740 -84.157421 2.686347 105 114 117
-1373.556240 46.112374 2.427702 141 147 152
-1432.550011 -109.381794 2.728493 83 93 96
-1324.971293 248.790463 2.108457 216 225 228
-1354.843696 115.003423 2.320845 110 119 122
-1354.843696 115.003423 2.320845 110 119 122
-1445.916515 -132.531723 2.793014 177 185 185
-1363.915209 71.655121 2.388559 141 147 152
-1344.912181 148.730873 2.264990 102 111 115
-2188.363054 -1340.405303 5.864808 37 40 44
-1896.720110 -904.651355 4.696342 35 38 42
-1327.644383 237.611337 2.137142 219 228 231
-2073.629121 -1175.363866 5.426485 25 28 32
-1330.965893 170.784746 2.220269 219 229 229
-2155.654342 -1305.829542 5.766793 97 100 104
-2436.653352 -1701.884484 6.877529 26 29 33
-1317.870586 210.144987 2.153539 225 233 236
-2180.486995 -1347.421864 5.885158 40 43 47
-1996.524865 -1093.175547 5.187189 83 86 90
-1333.315203 127.676331 2.292626 188 198 202
-1372.076567 5.379506 2.513582 108 116 117
-1301.630137 274.243534 2.071855 228 238 238
-1307.617388 232.344608 2.133394 205 215 217
-1357.531996 23.689743 2.471679 116 122 125
-1933.919481 -1000.148806 4.964672 93 96 100
-1887.684078 -935.646348 4.782155 20 23 27
-1402.819200 -84.844641 2.699624 68 75 77
-1345.674550 73.140566 2.403703 123 130 133
-1413.337263 -117.828178 2.764742 95 102 105
-1923.115052 -985.290925 4.943500 40 43 47
-1407.194480 -124.831716 2.764493 137 143 147
-2139.638348 -1327.627877 5.855250 31 34 38
-1584.226070 -475.209357 3.519221 115 121 116
-1396.933980 -98.036064 2.719380 161 168 172
-1296.454294 265.917553 2.100332 215 224 228
-1856.181600 -903.012152 4.704653 117 120 124
-1299.093675 242.423519 2.133532 221 230 234
-1285.306210 276.531323 2.065766 181 190 193
-1317.960071 204.670261 2.222436 186 193 196
-1294.521983 208.685720 2.165969 172 180 181
-1372.018033 -36.685399 2.612580 188 193 195
-1287.350713 266.241750 2.094751 136 145 149
-1397.404725 -117.836838 2.759754 93 101 101
-1914.541745 -1003.592011 4.983274 111 114 118
-1295.198573 238.736511 2.149613 190 199 202
-2033.310771 -1189.791853 5.487974 30 33 38
-1346.361760 -8.352321 2.529067 99 109 110
-1272.963723 273.094239 2.064628 187 195 199
-1579.234282 -457.588608 3.532032 111 117 112
-1579.234282 -457.588608 3.532032 111 117 112
-2010.596688 -1156.096283 5.412951 94 97 101
-2484.813789 -1856.502745 7.350628 95 98 103
-2474.230354 -1847.853033 7.314742 95 98 103
-1342.685185 97.965478 2.429239 211 217 216
-1654.203981 -601.678770 3.879752 76 82 80
-1695.285518 -684.254173 4.072489 122 126 127
-1329.795502 6.200395 2.497133 96 102 102
-1317.194388 66.159955 2.406932 221 230 233
-1262.404162 231.127943 2.126044 216 224 224
-1262.404162 231.127943 2.126044 216 224 224
-1611.149887 -546.659290 3.769388 212 211 210
-2132.162860 -1387.545720 6.068230 75 79 83
-1255.663957 249.795572 2.109775 90 101 105
-1551.169198 -478.539744 3.562913 44 49 47
-1268.190554 172.687877 2.224363 215 222 225
-1391.060048 -185.916806 2.880193 181 182 184
-1320.725039 -43.373568 2.583163 139 145 145
-1243.962398 268.205383 2.067172 112 121 125
-1350.357254 -69.954401 2.699556 140 145 146
-1310.430325 21.280170 2.504419 147 156 159
-1262.145574 165.894383 2.230828 200 211 215
-1263.632581 136.537283 2.271020 130 139 143
-2192.186334 -1507.287396 6.419251 87 90 94
-1237.974628 249.502950 2.104877 138 145 148
-1237.974628 249.502950 2.104877 138 145 148
-2184.476945 -1515.383195 6.431531 95 98 102
-1659.461363 -681.584820 4.105208 105 101 101
-1325.768927 -60.429560 2.656155 68 73 74
-1249.354349 186.233079 2.205548 120 129 132
-1265.238280 97.133142 2.346705 120 127 130
-1284.909190 27.856219 2.471566 184 191 191
-1582.828318 -562.999463 3.804899 102 97 96
-1268.482805 73.747488 2.389197 106 114 114
-1242.753306 113.949418 2.277500 130 140 140
-1224.242698 272.281766 2.072592 207 213 218
-1241.627114 255.024149 2.136889 208 215 218
-1310.995234 -55.983975 2.642249 60 66 65
-1496.644745 -436.661761 3.473286 44 51 48
-1262.042325 86.990988 2.383990 125 134 134
-1903.674168 -1117.079182 5.367151 16 19 23
-1222.192729 180.741911 2.193576 67 78 83
-1237.382608 114.483515 2.302580 205 215 216
-1247.654864 92.549631 2.359014 197 202 203
-1207.050092 250.430689 2.091305 107 116 119
-1213.331529 192.191883 2.168039 118 125 130
-1213.331529 192.191883 2.168039 118 125 130
-1958.544303 -1223.838637 5.670919 36 39 43
-1958.544303 -1223.838637 5.670919 36 39 43
-1923.925633 -1170.661554 5.525147 111 114 118
-1841.114448 -1047.153273 5.180645 35 38 42
-1209.571283 192.563346 2.181356 224 233 237
-1195.143113 252.492233 2.081993 118 126 130
-1202.179168 263.325346 2.091357 202 212 216
-1823.540753 -1022.867399 5.125769 107 110 114
-2111.731216 -1479.346278 6.400786 104 107 111
-2230.015136 -1663.911231 6.927821 27 30 34
-1193.729030 260.024854 2.087975 111 120 124
-1229.860115 74.667926 2.380092 70 77 80
-2394.970097 -1914.078284 7.666850 49 52 56
-1213.882299 103.506283 2.328845 94 103 106
-2338.888536 -1853.706386 7.495287 109 114 117
-1191.921468 160.063911 2.236214 198 207 210
-1257.119142 -42.078908 2.635386 90 98 97
-1912.546859 -1213.188458 5.693941 45 48 52
-1315.010673 -204.288593 2.930223 25 32 28
-1240.555618 -25.948706 2.580832 71 76 75
-1210.027314 85.232890 2.380126 106 115 118
-1210.027314 85.232890 2.380126 106 115 118
-1159.742969 270.019254 2.050341 223 231 231
-1161.554352 285.704587 2.047429 202 211 215
-1170.839915 210.885026 2.153803 96 105 108
-1840.000276 -1116.191355 5.423162 79 82 86
-1180.239533 155.005439 2.238704 106 115 118
-2248.926186 -1755.349636 7.260250 94 97 101
-1194.367385 73.382610 2.373352 77 84 87
-1238.436986 -38.556524 2.622551 32 40 39
-1151.882513 234.129592 2.092781 148 157 160
-1158.562515 200.121044 2.150011 128 137 140
-1113.990437 -60.843378 2.322368 174 178 179
-1444.266972 -484.040509 3.622311 69 65 64
-1582.732571 -722.501022 4.264855 93 90 86
-1160.009297 160.265184 2.216441 121 130 134
-1374.746303 -382.760403 3.350645 65 70 67
-2050.086375 -1499.670693 6.533602 30 33 37
-1185.765505 61.846824 2.412192 147 155 155
-1165.936086 119.734445 2.300331 185 193 193
-1165.936086 119.734445 2.300331 185 193 193
-1175.707375 33.436750 2.418736 127 135 135
-1200.121562 2.582966 2.544690 61 67 66
-1113.168737 270.128771 2.011400 217 225 225
-2286.745558 -1906.609077 7.718380 100 105 108
-1141.488078 174.980417 2.205589 97 106 109
-2257.734305 -1852.811584 7.583658 37 42 45
-2201.175876 -1775.871429 7.350997 100 104 107
-2201.175876 -1775.871429 7.350997 100 104 107
-1505.788235 -636.331055 4.045810 141 139 131
-1505.788235 -636.331055 4.045810 141 139 131
-1257.208265 -184.842784 2.894991 28 34 32
-1210.391785 -93.488703 2.680197 174 178 179
-1107.857109 265.422619 2.031501 119 128 131
-1107.857109 265.422619 2.031501 119 128 131
-1840.310250 -1215.535119 5.752422 36 39 43
-1129.695592 197.776510 2.180201 128 138 142
-1126.565650 248.376415 2.117093 152 161 164
-1113.230984 228.884515 2.099725 98 107 110
-1123.119456 175.761165 2.186914 106 112 115
-1164.197207 46.519676 2.452026 133 138 139
-2201.427841 -1809.548251 7.480373 26 31 34
-1327.399765 -357.219580 3.298311 59 64 66
-1162.151988 12.363896 2.491725 109 114 115
-1094.731911 265.171091 2.039524 119 128 131
-1105.232165 247.122116 2.088414 208 216 219
-1531.603141 -732.525143 4.310315 120 117 113
-1134.315381 104.495455 2.329171 160 167 170
-2045.640313 -1601.019363 6.868539 44 49 52
-1081.447407 274.314684 2.010781 211 220 223
-1119.392413 104.859057 2.310013 70 81 81
-1142.336557 31.806655 2.466716 131 136 137
-1073.348237 288.237184 1.989079 116 125 129
-1083.092692 250.617455 2.065938 144 153 157
-1137.125997 56.494077 2.436559 92 97 97
-1177.526498 -106.066845 2.705643 101 106 105
-1802.457691 -1242.457878 5.847829 52 55 59
-1087.771035 184.230478 2.174492 94 103 106
-1078.425897 209.031489 2.124299 183 192 196
-1772.513588 -1171.186110 5.726076 94 97 101
-1788.663656 -1225.088979 5.811217 117 120 124
-1119.539641 68.246380 2.414193 91 96 97
-1924.420395 -1473.837426 6.534006 108 113 116
-1269.260664 -345.535583 3.272323 208 199 192
-1073.020853 170.363161 2.188574 218 227 230
-1073.020853 170.363161 2.188574 218 227 230
-1853.496248 -1357.241087 6.221356 32 35 39
-1119.338563 27.415667 2.485724 95 100 99
-2177.966538 -1896.765851 7.804811 109 112 116
-1781.790108 -1255.398610 5.912028 35 38 42
-1096.213270 64.916274 2.398652 132 137 138
-2263.501245 -2053.294359 8.284767 109 112 116
-1227.649252 -252.219872 3.090849 37 44 40
-2003.216337 -1631.703512 7.044454 38 41 45
-2003.216337 -1631.703512 7.044454 38 41 45
-1951.349306 -1547.128201 6.791830 84 87 91
-1088.498881 83.295069 2.370222 132 139 142
-1769.027863 -1239.430267 5.905399 85 88 92
-2160.987353 -1908.360938 7.846682 35 38 42
-1244.074607 -336.601289 3.249930 201 198 192
-1234.659872 -332.136965 3.216251 201 198 192
-1069.671080 123.266764 2.282030 62 69 72
-1069.671080 123.266764 2.282030 62 69 72
-1055.338994 158.067285 2.213267 88 97 100
-1040.032820 232.578203 2.087268 68 77 80
-1289.328124 -422.414878 3.494162 230 226 220
-2161.865557 -1931.734473 7.940875 39 42 46
-1128.685402 -95.176695 2.695441 100 102 103
-1031.125563 258.517185 2.043079 126 135 138
-1018.153763 239.225350 2.030723 167 176 179
-1064.430236 105.873003 2.337910 159 166 169
-1064.430236 105.873003 2.337910 159 166 169
-2127.976431 -1904.875353 7.887966 40 44 48
-1067.049317 70.347625 2.387277 87 92 93
-1055.534534 120.835808 2.300750 160 167 170
-1060.624054 84.757723 2.358778 80 88 88
-1024.474803 251.500488 2.063706 116 125 128
-1024.474803 251.500488 2.063706 116 125 128
-1036.050247 155.104443 2.215535 182 191 192
-1939.584114 -1608.840840 7.012590 91 94 98
-2040.215683 -1792.756901 7.590922 91 96 99
-1981.751966 -1701.034700 7.303428 28 31 35
-1581.621077 -1040.577009 5.223752 253 251 246
-1002.453536 234.536442 2.067913 189 198 201
-2152.322544 -2013.130918 8.242403 25 28 32
-1776.453451 -1362.958403 6.319155 38 41 45
-1170.680145 -286.856824 3.133506 50 56 54
-1028.823533 111.108249 2.310082 113 121 121
-993.382299 233.992908 2.061495 69 78 81
-1001.706166 178.904511 2.160542 69 78 81
-1025.591373 134.042285 2.287746 103 110 114
-2086.136160 -1956.758468 8.041632 83 86 90
-1276.860875 -500.946554 3.725076 54 50 48
-1008.934053 155.386039 2.221781 174 184 184
-975.315945 287.360114 1.968606 75 84 88
-975.315945 287.360114 1.968606 75 84 88
-967.075234 297.662368 1.934907 193 201 203
-974.405945 256.117772 2.018440 136 147 150
-1154.556520 -283.961627 3.151466 188 186 181
-983.069203 176.922726 2.156060 113 121 121
-968.171542 250.734665 2.028908 213 221 222
-1181.108716 -359.854285 3.337938 166 161 156
-2048.764345 -1928.396666 8.058769 118 122 126
-1129.814786 -257.053495 3.084309 42 49 46
-982.638923 178.628271 2.178917 189 195 200
-1486.916984 -1067.117340 5.156424 42 46 51
-969.025651 126.187537 2.212045 162 167 170
-969.025651 126.187537 2.212045 162 167 170
-990.165488 127.952540 2.282410 152 156 158
-1001.800308 53.149443 2.410124 113 118 117
-1103.420011 -239.788954 3.019852 58 65 65
-953.357395 235.705484 2.048471 215 221 222
-1941.621925 -1773.495101 7.614534 55 58 62
-1860.590937 -1638.190587 7.217056 36 41 44
-967.727751 141.532962 2.218173 163 170 173
-1069.374860 -174.454895 2.865791 83 90 87
-1964.266013 -1844.980025 7.827730 109 114 117
-964.734471 131.837895 2.236345 85 93 96
-927.390806 307.602097 1.915527 110 118 122
-927.390806 307.602097 1.915527 110 118 122
-951.867431 183.370095 2.142678 79 87 90
-928.814969 269.318569 1.967113 207 214 217
-1078.148676 -278.772821 3.041145 205 197 190
-1337.348922 -667.389528 4.305063 78 82 73
-934.590046 238.791113 2.043113 163 173 175
-924.637405 273.276209 1.971587 196 203 206
-929.311553 213.332802 2.072034 174 183 183
-964.726282 87.086630 2.339446 150 155 156
-1388.606539 -847.828335 4.720120 240 235 228
-936.122880 159.504554 2.167391 177 184 187
-950.700738 108.775036 2.288664 149 157 157
-974.141145 46.978606 2.443739 64 72 71
-909.265638 273.091529 1.967986 134 143 146
-921.390072 199.353015 2.117414 174 183 186
-911.048717 235.884254 2.042756 87 96 99
-941.343355 122.491621 2.282124 93 100 103
-942.244769 71.314628 2.371787 66 73 76
-893.024388 259.069655 1.988280 174 183 186
-881.462249 267.700125 1.950931 130 139 142
-888.539823 187.797146 2.070088 164 173 176
-1541.429858 -1261.259012 5.903139 128 139 131
-954.084084 32.706751 2.497593 90 95 94
-874.169900 292.471920 1.917593 127 136 139
-888.862663 201.265528 2.079251 98 107 110
-1179.605617 -535.401045 3.861813 26 32 27
-937.986686 57.722336 2.432114 114 120 121
-885.165761 206.332507 2.086291 56 65 68
-874.170900 236.338698 2.015616 113 122 125
-896.421753 148.063396 2.216641 87 94 97
-915.960822 83.573545 2.365856 69 76 79
-1340.539854 -875.848195 4.858592 50 55 49
-1332.573116 -847.258698 4.800925 30 37 30
-860.996534 257.504245 1.987882 93 102 105
-862.911372 239.387585 2.027252 122 131 134
-882.267652 142.291823 2.224676 105 112 115
-897.988796 101.841894 2.333308 91 97 101
-1641.379082 -895.871206 6.026023 58 64 59
-882.713785 87.791379 2.334119 129 135 134
-863.413972 260.219770 2.062600 207 215 214
-1529.471627 -1387.538931 6.260917 82 86 87
-866.787500 119.954103 2.258607 94 102 102
-829.941474 289.285138 1.926298 72 82 86
-879.324005 94.298985 2.341982 144 152 151
-820.334595 286.398829 1.905374 70 79 83
-897.483301 11.626394 2.520905 17 20 20
-841.805334 173.720823 2.143222 122 130 131
-854.559379 142.809715 2.227255 154 163 167
-874.101714 61.819414 2.416350 134 139 140
-836.311829 168.842210 2.152662 169 178 180
-1436.167886 -1143.067930 5.867645 114 124 114
-865.668606 46.303607 2.460848 137 142 141
-783.471848 320.011053 1.831730 97 106 109
-796.332746 270.659916 1.943393 108 119 119
-849.131754 67.034686 2.415345 81 87 88
-832.927934 112.115823 2.301659 138 145 148
-854.983917 36.796677 2.491601 65 70 69
-786.747464 289.801280 1.920962 114 124 128
-802.831902 207.637677 2.084608 85 94 97
-798.737637 213.492517 2.086461 173 184 186
-798.737637 213.492517 2.086461 173 184 186
-828.871944 80.165180 2.365643 151 159 159
-811.933698 143.718137 2.224812 158 165 168
-804.192164 195.881335 2.136863 95 104 107
-792.111130 237.784294 2.039948 141 148 151
-773.129383 259.374206 1.940502 195 204 207
-844.651526 23.260100 2.517748 112 118 117
-770.226399 312.654750 1.875371 174 184 188
-766.749992 260.386452 1.955705 123 132 135
-788.008369 154.913106 2.185444 149 158 161
-775.647946 194.616028 2.107513 163 172 175
-765.625043 231.965846 2.029291 104 113 116
-773.614623 169.494187 2.154055 181 188 191
-819.287094 24.317113 2.526334 116 120 119
-766.123465 203.636531 2.094415 187 196 199
-741.877485 274.658196 1.920814 105 114 117
-1476.939874 -1577.324795 7.032252 99 105 98
-793.734784 62.016896 2.429831 86 91 92
-753.036650 205.302301 2.094151 124 133 136
-1637.021088 -1843.715311 7.977307 10 15 13
-729.058546 297.155679 1.877769 206 214 212
-735.791318 251.437557 1.969649 84 93 96
-735.791318 251.437557 1.969649 84 93 96
-1065.511351 -625.637922 4.294616 195 186 177
-731.214038 230.211878 2.005522 166 175 178
-713.092204 293.306411 1.883411 115 124 127
-713.785293 288.455379 1.895907 100 109 112
-714.939107 240.526311 1.966104 97 106 109
-889.184035 -304.909791 3.302494 44 50 48
-1158.247591 -1084.187192 5.370687 44 49 44
-719.517822 196.850794 2.079435 179 186 189
-716.226114 211.556245 2.065219 168 177 180
-1302.505039 -1297.079340 6.237674 91 102 94
-708.474483 209.941622 2.064881 89 98 101
-708.474483 209.941622 2.064881 89 98 101
-687.106199 313.602406 1.842910 131 140 143
-715.601543 168.151319 2.156666 152 160 163
-696.611447 241.842326 1.988766 119 128 131
-700.387443 217.710519 2.044577 159 168 171
-697.880905 211.064313 2.066903 97 106 109
-697.880905 211.064313 2.066903 97 106 109
-680.898110 262.304208 1.961407 61 69 73
-717.889060 90.164907 2.353224 71 78 81
-880.221802 -392.376355 3.532911 36 42 39
-700.359901 138.498030 2.231650 166 174 174
-735.873419 27.772484 2.534736 77 83 82
-678.513112 236.260632 2.010238 108 117 120
-686.566038 179.661864 2.135084 96 105 108
-700.217357 87.303461 2.369085 131 139 139
-647.259017 327.592691 1.816708 92 101 104
-645.701812 285.338572 1.890600 170 177 180
-642.138510 252.751020 1.958049 177 186 190
-664.658335 128.258972 2.246757 77 85 85
-621.074536 309.814509 1.828362 180 189 192
-639.503466 180.873823 2.112349 83 90 93
-639.503466 180.873823 2.112349 83 90 93
-622.249375 271.634057 1.919381 179 187 190
-648.113978 143.057393 2.226641 147 154 157
-614.092834 242.588758 1.945113 191 199 199
-600.052988 323.838532 1.797279 150 159 162
-637.399505 138.923471 2.244272 87 94 97
-609.596187 241.849916 1.961877 133 141 141
-1617.047224 -2404.209718 9.885360 78 85 79
-603.129670 277.510460 1.897382 189 198 202
-603.129670 277.510460 1.897382 189 198 202
-1100.232714 -1101.180894 5.844297 21 28 23
-1100.232714 -1101.180894 5.844297 21 28 23
-612.913739 211.404000 2.055058 68 75 78
-612.913739 211.404000 2.055058 68 75 78
-1189.007845 -1317.329803 6.549425 54 65 57
-810.254917 -467.983257 3.770135 39 46 43
-648.773395 50.166179 2.496592 70 77 80
-991.490110 -903.585089 5.212426 48 55 50
-991.490110 -903.585089 5.212426 48 55 50
-585.506043 275.212956 1.901295 170 179 182
-572.017919 316.427323 1.785285 148 157 160
-599.998424 185.200523 2.111234 95 102 105
-599.998424 185.200523 2.111234 95 102 105
-581.471310 277.204778 1.927002 87 96 99
-585.919030 237.988915 2.004725 74 83 86
-651.910614 -51.418856 2.773938 69 74 73
-632.341043 19.981951 2.580029 80 88 88
-632.341043 19.981951 2.580029 80 88 88
-648.700984 -62.008758 2.807364 11 16 15
-569.572012 267.401873 1.942097 104 113 116
-605.677223 85.057323 2.390706 83 90 93
-605.677223 85.057323 2.390706 83 90 93
-626.302925 5.536469 2.615087 75 83 83
-650.213290 -108.057779 2.877903 134 138 139
-587.615432 136.968944 2.248849 133 140 143
-642.844493 -41.046297 2.796347 67 72 71
-546.953441 328.758696 1.775836 175 184 187
-1331.850941 -1987.923417 8.609541 4 8 5
-556.798048 270.340437 1.922491 161 170 173
-600.220561 50.029615 2.486641 122 129 132
-578.904246 121.814586 2.304837 149 156 159
-592.746717 82.363534 2.432806 141 148 151
-588.016277 44.635511 2.507828 116 123 126
-555.882682 170.992003 2.161982 63 70 73
-1174.581371 -1896.491620 7.970433 23 31 24
-549.713998 199.202786 2.101949 146 155 158
-537.159199 240.876108 1.990439 85 92 95
-596.652816 -20.695937 2.714259 128 136 136
-525.180117 280.494582 1.905417 119 126 129
-541.855750 164.732468 2.173877 129 136 139
-580.402442 28.038540 2.592593 61 69 69
-1147.853980 -1672.963733 7.747232 12 19 12
-521.037713 234.505454 2.005164 89 96 99
-532.386463 174.597052 2.166377 66 73 76
-1275.274829 -2071.347953 9.037992 133 142 135
-525.456567 165.996007 2.172985 77 84 88
-525.456567 165.996007 2.172985 77 84 88
-1241.628619 -2224.552278 9.150847 74 82 75
-1228.803764 -1988.823653 8.752317 122 132 125
-501.332021 290.750532 1.874635 69 78 81
-501.332021 290.750532 1.874635 69 78 81
-506.677865 253.919935 1.961337 85 93 96
-551.029993 7.880946 2.639448 135 142 145
-483.067511 335.179820 1.748167 119 128 131
-513.351726 167.805117 2.180780 142 149 152
-503.815624 202.849203 2.079444 80 87 90
-494.494379 250.760329 1.952805 164 173 176
-553.162688 -12.769797 2.706457 57 66 66
-703.272610 -569.073341 4.246622 28 34 33
-537.858536 9.447491 2.635392 84 91 94
-549.116810 -43.122887 2.800953 66 74 74
-504.678077 135.068024 2.273667 135 143 146
-497.449259 163.488618 2.203599 153 160 163
-474.847891 261.183787 1.939262 72 81 84
-1106.863627 -1795.154489 8.239768 135 142 135
-538.130995 -35.058122 2.780301 114 122 122
-522.240978 21.612985 2.609993 74 81 84
-522.240978 21.612985 2.609993 74 81 84
-508.759061 56.366530 2.522658 70 81 81
-493.247336 111.340457 2.346420 58 67 70
-624.489134 -502.153893 3.878457 44 52 52
-676.361703 -622.846093 4.362403 159 160 156
-454.728017 308.713506 1.818494 153 162 165
-1111.758855 -1947.601373 8.698592 58 65 58
-452.028162 278.608234 1.889822 98 106 109
-442.707024 335.693080 1.743859 87 96 99
-442.707024 335.693080 1.743859 87 96 99
-456.521408 241.808179 1.993100 141 149 152
-1248.387705 -2668.024624 10.824009 253 249 243
-1248.387705 -2668.024624 10.824009 253 249 243
-452.084613 164.729289 2.196016 164 169 170
-481.990369 13.151263 2.654456 81 91 91
-1179.199119 -2549.825450 10.501785 254 251 246
-462.580188 85.146257 2.444030 52 61 64
-994.123054 -1887.754851 8.428135 99 105 99
-994.123054 -1887.754851 8.428135 99 105 99
-1193.319532 -2608.768052 10.762142 254 252 246
-417.832749 316.645672 1.795703 112 121 124
-941.724945 -1776.790876 8.111877 124 130 128
-415.895259 248.188497 1.956796 143 150 153
-414.395414 301.768772 1.867631 147 154 157
-473.454529 -38.285620 2.835561 61 70 73
-430.978851 145.392652 2.272345 65 72 75
-420.925625 190.250894 2.130727 160 165 166
-474.562056 -79.132935 2.960367 101 106 107
-919.724364 -1711.673004 7.988467 38 43 41
-457.776653 -39.269894 2.819554 70 79 82
-397.562999 269.154222 1.924425 80 87 90
-386.566638 345.116293 1.736308 84 91 94
-392.913375 275.080754 1.918154 168 175 178
-411.024544 149.530316 2.265064 131 140 143
-445.927079 -39.014589 2.843756 120 129 132
-385.282046 319.296588 1.803812 154 161 164
-863.431672 -2040.820626 8.909267 72 69 65
-863.431672 -2040.820626 8.909267 72 69 65
-374.218470 301.190530 1.805281 127 134 137
-375.399530 301.177697 1.813894 127 134 137
-375.399530 301.177697 1.813894 127 134 137
-388.091760 233.301089 2.034338 94 101 104
-388.091760 233.301089 2.034338 94 101 104
-371.067918 307.688794 1.823906 114 121 124
-370.822537 278.645534 1.889931 160 168 171
-370.822537 278.645534 1.889931 160 168 171
-382.776563 182.375838 2.175162 130 140 142
-387.567520 112.915254 2.376586 66 75 78
-356.243325 337.529475 1.762761 152 159 162
-357.832529 250.804616 1.997365 100 109 112
-695.842678 -1339.335773 6.760359 73 79 74
-379.206785 70.471792 2.525724 65 74 77
-870.787858 -2534.498657 10.548650 137 129 122
-338.980890 295.964533 1.850177 62 71 74
-658.365388 -1280.328682 6.558232 69 75 70
-658.365388 -1280.328682 6.558232 69 75 70
-378.067117 1.213781 2.717381 91 101 102
-368.948309 56.829427 2.566541 134 143 146
-350.352714 141.015542 2.286080 135 142 145
-386.886907 -80.725478 3.029496 59 66 66
-329.035716 289.839546 1.892183 78 87 90
-329.035716 289.839546 1.892183 78 87 90
-327.940940 237.514720 2.000792 105 113 116
-327.940940 237.514720 2.000792 105 113 116
-325.066822 293.700211 1.903655 162 169 172
-371.644992 -58.071868 2.963552 64 73 75
-346.183270 42.175818 2.616147 54 63 66
-307.598469 306.573177 1.816574 148 156 159
-314.155981 263.046053 1.977420 80 89 92
-311.181344 252.222415 1.998495 150 157 160
-299.134701 333.727685 1.770503 164 171 174
-331.077645 21.931918 2.680385 135 143 143
-331.077645 21.931918 2.680385 135 143 143
-306.472525 206.210127 2.123992 72 80 83
-335.318864 -39.908958 2.944526 67 76 79
-335.318864 -39.908958 2.944526 67 76 79
-299.863464 197.607943 2.154703 80 88 91
-294.442960 230.480572 2.065136 77 84 87
-489.884991 -1022.006788 5.688933 60 67 65
-328.619986 -52.205647 2.964040 70 76 79
-303.543999 88.423972 2.449611 147 154 157
-285.106964 229.047407 2.055319 123 132 135
-317.689052 -359.239784 3.422000 129 131 131
-827.483820 -1249.409029 8.908489 25 31 29
-311.108024 -5.167707 2.815139 72 79 82
-317.547728 -56.056747 3.018029 136 143 146
-317.547728 -56.056747 3.018029 136 143 146
-267.804231 331.814308 1.772242 162 171 174
-280.379657 116.965482 2.351248 80 87 90
-280.379657 116.965482 2.351248 80 87 90
-268.435794 291.707138 1.893313 93 102 105
-267.711497 227.412606 2.052686 138 147 150
-259.997081 346.368213 1.738952 152 161 164
-259.997081 346.368213 1.738952 152 161 164
-261.105573 293.815106 1.885933 84 93 96
-257.358280 337.286711 1.758872 70 79 82
-260.747685 216.190448 2.072680 161 168 171
-292.729865 -63.197603 3.029763 127 136 139
-246.517976 121.686665 2.372471 93 101 101
-263.314359 -25.840486 2.921387 122 129 132
-246.139677 71.658849 2.551037 119 128 131
-258.677163 -36.625255 2.956420 70 77 80
-243.615584 49.188882 2.621827 72 79 82
-223.254913 308.946846 1.800580 150 157 160
-256.825574 -42.070808 2.999392 80 87 90
-213.986783 174.625148 2.174744 63 70 73
-237.377166 -48.686688 3.033038 145 152 155
-213.562981 78.289708 2.497328 148 155 158
-213.562981 78.289708 2.497328 148 155 158
-203.546942 264.198738 1.945266 80 89 92
-204.186351 235.241570 2.027252 71 78 81
